ncols 203
nrows 41
xllcorner 0
yllcorner 0
cellsize 1000
nodata_value -9999
210.177871704	423.606933594	89.7383956909	142.01121521	561.679199219	602.104309082	246.595077515	447.273773193	729.369934082	670.082702637	1008.66680908	803.343688965	769.16784668	608.690551758	396.499816895	336.214172363	313.154663086	296.952545166	294.10723877	293.392883301	320.357147217	311.023651123	377.88079834	417.325012207	447.285491943	445.381347656	342.452331543	332.523742676	353.345123291	407.750061035	480.311981201	537.345275879	597.607177734	727.154907227	702.654602051	729.094909668	859.11907959	865.227050781	712.047790527	779.7265625	827.500976562	637.337341309	610.357055664	575.535949707	344.583190918	487.440307617	665.333068848	617.893371582	333.387512207	583.036010742	552.463378906	415.678314209	289.773803711	204.642166138	327.334136963	418.964141846	488.654327393	450.475250244	339.725067139	379.454101562	302.475921631	316.429046631	132.654449463	216.821655273	182.762207031	96.4878921509	91.9349060059	101.190612793	178.393417358	248.76210022	268.619232178	233.905654907	320.632019043	324.440551758	338.344970703	350.309356689	385.904907227	517.363769531	374.261932373	474.642852783	487.512115479	428.202850342	407.297363281	345.714202881	287.701324463	61.2494277954	89.488609314	217.499954224	279.559570312	280.380584717	353.785461426	282.880523682	227.331939697	314.690490723	273.345214844	305.155731201	288.023651123	232.321273804	203.035522461	193.273895264	157.571166992	183.225967407	161.869125366	103.274665833	171.415878296	171.797180176	154.892593384	142.761886597	116.547302246	96.0594940186	95.8334274292	82.2380905151	77.166519165	50.4935035706	41.3334846497	41.0118789673	52.3931808472	44.9642944336	49.3929443359	48.6905136108	59.5453910828	70.904800415	89.4524383545	99.8212203979	96.405456543	104.654693604	71.3094787598	64.2024917603	91.1663894653	119.678283691	112.809425354	102.013038635	118.154548645	151.035675049	117.51197052	105.654716492	104.166786194	105.48802948	129.350753784	147.607040405	135.797653198	131.833221436	131.833465576	100.880966187	81.8334579468	59.6667251587	40.904750824	23.4047164917	41.4047279358	31.7401351929	36.4166755676	61.1316337585	67.5119476318	60.6426925659	64.3214797974	0	0	0	0	0	0	0	0	0	0	0	0	0	0	0	0	0	0	0	0	0	0	0	0	0	0	0	0	0	0	0	0	0	0	0	0	0	0	0	0	0	0	0	0	0	0	0	0
209.070465088	269.82232666	45.0962867737	505.094848633	706.238586426	451.831420898	312.940856934	507.404571533	474.653533936	530.653747559	970.88293457	827.175964355	576.597412109	416.606414795	338.083465576	308.214416504	301.083312988	299.32131958	297.059509277	316.285705566	341.428894043	317.238037109	326.285522461	356.129730225	330.356964111	314.892913818	329.523498535	347.119232178	407.845245361	489.297607422	587.246826172	603.714111328	719.416320801	710.464294434	771.380981445	679.750488281	727.667114258	695.285339355	640.476318359	702.321350098	686.416687012	667.518371582	597.262268066	464.154693604	408.619537354	218.475692749	218.642440796	196.630554199	199.947601318	186.630981445	188.642837524	184.618560791	342.012207031	297.903808594	232.714355469	179.403579712	166.249816895	197.452529907	307.548370361	134.155792236	164.559875488	120.654670715	188.035995483	380.571411133	227.928436279	106.785453796	185.519744873	305.179168701	389.000244141	396.309387207	355.833374023	324.36907959	376.559661865	358.142913818	363.428649902	474.035125732	445.476593018	462.116607666	390.809204102	444.571594238	461.369110107	423.952392578	477.678649902	477.607330322	363.285400391	126.928207397	70.189163208	263.964630127	251.261779785	230.51184082	350.78692627	191.74961853	153.951522827	182.213943481	143.78553772	174.740447998	190.594848633	153.940704346	138.035644531	157.809524536	166.892852783	166.904968262	188.221191406	127.822235107	87.0712966919	96.440612793	98.1544342041	89.7975463867	60.7975463867	50.357093811	61.4998893738	57.9286766052	41.2023887634	36.6883430481	41.4519271851	45.8568611145	45.1189079285	58.7856025696	52	64.952507019	116.792503357	113.881004333	140.107131958	196.726364136	135.809997559	146.452041626	139.61895752	117.523643494	86.5122528076	85.0235671997	89.1548080444	126.064620972	252.119293213	159.369262695	131.97605896	122.880867004	124.238090515	140.86907959	142.116882324	144.714172363	147.488082886	170.452713013	163.797470093	129.523773193	102.273963928	76.6430511475	55.5477027893	38.4406204224	31.1188526154	42.6753807068	71.4642181396	78.4167251587	89.77394104	79.6071853638	29.2157974243	0	0	0	0	0	0	0	0	0	0	0	0	0	0	0	0	0	0	0	0	0	0	0	0	0	0	0	0	0	0	0	0	0	0	0	0	0	0	0	0	0	0	0	0	0	0	0	0
256.583557129	47.1067008972	139.118911743	564.728637695	741.226867676	358.856842041	635.024353027	449.06060791	557.893188477	679.605407715	501.714019775	443.427185059	351.077728271	339.178436279	356.416931152	314.488037109	352.392547607	315.213806152	301.892883301	394.523529053	373.214233398	314.13092041	295.988037109	259.857299805	346.797973633	364.642700195	354.059661865	472.26184082	527.464233398	590.179077148	661.168151855	737.392944336	705.297119141	689.832580566	680.108276367	431.190155029	429.51184082	488.452209473	504.11895752	599.345397949	498.833892822	505.338256836	349.344787598	260.17779541	205.857040405	285.940368652	464.858642578	354.011383057	321.55859375	286.012298584	467.333770752	506.773681641	466.677703857	685.215332031	661.797790527	496.415802002	422.535186768	503.572753906	299.976593018	134.778991699	159.904510498	242.988327026	362.536132812	212.536300659	120.393066406	200.429138184	374.259765625	484.595031738	486.583587646	367.654937744	344.749908447	463.035919189	439.976715088	441.166412354	426.832855225	441.047546387	430.618713379	458.025909424	380.761993408	443.857269287	461.594970703	391.785675049	423.143005371	463.047424316	383.32409668	233.702331543	52.5357131958	275.000061035	235.988510132	204.238296509	219.820846558	119.166244507	100.071266174	101.500099182	118.607788086	79.0389404297	111.750267029	161.488723755	91.0354537964	72.8926696777	98.0956268311	115.713668823	138.402801514	85.5474624634	55.9761199951	47.4283981323	42.6903762817	41.4878845215	36.5952453613	39.1308937073	40.9403152466	35.64270401	37.0357246399	50.3248062134	52.1904296875	55.5476989746	61.702003479	54.4048347473	61.452331543	93.4165649414	195.688552856	163.404495239	185.34463501	186.904556274	142.904769897	150.368789673	222.750213623	243.214370728	132.25038147	95.0948257446	92.107460022	106.220718384	128.916656494	144.666793823	143.119049072	144.238067627	151.095169067	179.464523315	171.272674561	181.57144165	177.035705566	154.047637939	171.012023926	130.952362061	98.8095474243	85.4286499023	68.2380905151	53.1907310486	28.7019252777	52.2595291138	49.1426849365	79.3332824707	67.3690185547	43.9642448425	0	0	0	0	0	0	0	0	0	0	0	0	0	0	0	0	0	0	0	0	0	0	0	0	0	0	0	0	0	0	0	0	0	0	0	0	0	0	0	0	0	0	0	0	0	0	0	0	0
146.976699829	31.4642601013	197.534835815	118.785011292	341.333435059	411.778869629	621.510803223	546.582946777	663.89465332	673.641601562	586.391967773	493.011383057	414.870025635	399.785339355	399.083282471	325.559570312	317.964141846	360.02331543	342.297546387	400.309326172	308.583099365	283.095458984	276.987762451	375.104095459	483.547393799	596.571899414	430.154541016	691.476379395	616.678405762	666.10736084	604.558410645	639.440429688	440.641693115	431.951965332	429.214263916	507.40435791	674.643188477	492.928833008	391.190887451	373.630950928	285.035308838	215.272521973	254.345321655	277.738128662	367.155822754	458.952178955	501.202728271	406.130767822	597.597351074	493.476196289	829.785949707	665.36920166	600.761962891	746.30859375	687.761413574	570.13079834	522.261657715	530.095458984	210.845077515	319.714660645	438.167633057	313.999603271	115.785301208	106	199.500427246	303.428375244	451.89642334	499.595550537	414.416900635	421.238189697	391.452087402	419.452178955	497.512176514	466.713500977	452.54864502	416.035614014	428.499969482	466.689025879	395.857269287	355.107269287	404.10723877	377.845336914	392.833251953	451.428771973	416.416412354	235.512588501	54.6190261841	291.178039551	233.227050781	124.475914001	99.2380599976	97.7856063843	112.88053894	147.881118774	147.97618103	117.973693848	61.035243988	50	68.2265777588	61.4524879456	44	71.9763336182	71.4027099609	74.5833282471	65.3691329956	49.5472946167	64.2858200073	50.2261657715	37.8097190857	35.0238075256	35.3929367065	52.3335723877	56.8573303223	45.558506012	63.9287986755	57.2620010376	54.4405288696	59.2499847412	97.0952987671	183.130935669	226.207397461	171.833145142	266.226196289	179.452484131	166.773712158	221.702560425	239.404968262	286.405151367	187.892852783	147.547561646	110.833267212	97.8178863525	93.7381286621	119.95223999	143.619476318	155.380767822	174.142700195	168.714187622	157.519393921	168.761825562	180.726150513	169.73815918	132.952392578	134	114.202575684	83.6071929932	66.8095397949	54.8213882446	39.9642906189	33.0131530762	46.3331871033	72.2975082397	72.6070709229	13.9282331467	0	0	0	0	0	0	0	0	0	0	0	0	0	0	0	0	0	0	0	0	0	0	0	0	0	0	0	0	0	0	0	0	0	0	0	0	0	0	0	0	0	0	0	0	0	0	0	0	0
24.7972736359	94.3214797974	599.476135254	611.094909668	310.892303467	549.948059082	755.488037109	774.4765625	773.868713379	752.011291504	727.320068359	619.832275391	848.587646484	663.66583252	500.72644043	318.702301025	292.166931152	283.154815674	311.202362061	288.999725342	222.594985962	211.166625977	367.821746826	553.870666504	845.810119629	574.190246582	514.203063965	734.500183105	789.23828125	871.166625977	840	582.11907959	802.16809082	581.368652344	622.926635742	689.892700195	829.394226074	656.047363281	461.488342285	293.749908447	238.702316284	329.792419434	426.487792969	319.67855835	448.535125732	650.405212402	473.452148438	692.929199219	735.314208984	450.677612305	796.142944336	935.285583496	811.02331543	871.153686523	815.214660645	705.845458984	520.071594238	252.345062256	106.892730713	108.207420349	106	106	109.761756897	223.261764526	429.809173584	424.738647461	486.844512939	485.142852783	432.773193359	518.833679199	446.332885742	487.440551758	508.392272949	536.238220215	398.48828125	344.726165771	410.893005371	411.285675049	434.571166992	346.975891113	346.487854004	377.702972412	319.428436279	373.749938965	418.765441895	361.298217773	91.6553573608	279.011993408	89.1785430908	145.2134552	103.952529907	120.785591125	186.97593689	153.39302063	132.536346436	134.208099365	140.750198364	92.3213195801	87.5357818604	123.250106812	75.5710601807	47.9165382385	45.6495666504	60.5591621399	61.5595855713	57.1667861938	58.238193512	48.9166793823	47.630771637	36.9168205261	38.0834617615	66.404914856	49.5832519531	57.4026985168	53.8571205139	65.6903762817	59.5952949524	110.535247803	175.940765381	262.453094482	208.052444458	306.559295654	250.190155029	201.035598755	199.845962524	186.416610718	260.428405762	230.690383911	190.999969482	159.999938965	131.225769043	122.636421204	122.202209473	185.011917114	152.523742676	149.797363281	164.976196289	166.440505981	167.75328064	147.857131958	139.654525757	139.404876709	122.726226807	110.511833191	93.3332901001	79.1907196045	53.5472564697	53.155166626	32.3569526672	18.0509319305	43.7738838196	49.3094787598	1.92844009399	0	0	0	0	0	0	0	0	0	0	0	0	0	0	0	0	0	0	0	0	0	0	0	0	0	0	0	0	0	0	0	0	0	0	0	0	0	0	0	0	0	0	0	0	0	0	0	0	0	0
49.4158477783	180.238113403	739.036132812	617.09375	622.033996582	741.559570312	789.582214355	409.487670898	727.833862305	704.869567871	917.368774414	689.833374023	498.389465332	622.286010742	401.45223999	308.000183105	266.118896484	230.559509277	173.464233398	171.333282471	211.928359985	376.99987793	566.262268066	867.260681152	953.907409668	676.214477539	444.262359619	759.214538574	664.250244141	774.821533203	724.013244629	655.99987793	615.892944336	708.798156738	695.071166992	805.773986816	812.429321289	631.01159668	518.154846191	287.143096924	370.17868042	515.467651367	615.095092773	455.487915039	574.20300293	763.738464355	510.250213623	721.845092773	687.532775879	578.201293945	916.643371582	991.726867676	731.797363281	771.404663086	811.393005371	520.29699707	323.595275879	107.154602051	106	107.752952576	152.297271729	202.369094849	238.393432617	308.368896484	458.797149658	483.857177734	484.870422363	489.333435059	477.357513428	532.238098145	469.749725342	573.083618164	550.641845703	495.892852783	501.262115479	448.107025146	338.035583496	390.480621338	361.893096924	370.750213623	288.868896484	263.619171143	291.190704346	326.095428467	359.882507324	368.154998779	185.572723389	59.4041748047	62.417011261	82.4048538208	202.475952148	277.619934082	176.594970703	192.940200806	129.2371521	74.129524231	126.118522644	87.4998016357	55.6901321411	112.321708679	72.6783676147	70.3808822632	52.2205657959	53.7738075256	62.9881820679	54.4285125732	52.3571128845	67.5476989746	39.2736816406	34.0476112366	54.6909446716	49.7381286621	56.4049873352	53.1428222656	68.8095550537	73.0476150513	74.8096389771	200.690292358	295.559173584	310.547851562	259.934906006	272.571777344	253.083312988	241.630722046	297.19128418	269.880981445	287.464782715	209.547836304	181.868881226	165.166641235	152.42868042	143.545516968	174.297729492	220.666870117	208.3331604	180.749893188	164.714263916	173.36895752	169.350585938	144.928573608	136.833358765	126.666717529	112.190849304	93.8809814453	66.0354537964	63.916683197	52.452457428	34.9761199951	25.8452682495	10.0649137497	27.9404811859	25.8333053589	0	0	0	0	0	0	0	0	0	0	0	0	0	0	0	0	0	0	0	0	0	0	0	0	0	0	0	0	0	0	0	0	0	0	0	0	0	0	0	0	0	0	0	0	0	0	0	0	0	0	0
534.761962891	302.856689453	566.833557129	914.773681641	928.001342773	531.232727051	582.200927734	326.011657715	555.143493652	422.785614014	516.36907959	517.392883301	325.311401367	352.1668396	325.143096924	259.142913818	215.642684937	164.166641235	177.059280396	238.774261475	391.475708008	800.476135254	812.097351074	767.350524902	855.570617676	541.547973633	365.737548828	703.797668457	792.514587402	492.797698975	684.961608887	695.357421875	540.833068848	569.690124512	743.285583496	633.665771484	697.738830566	540.559631348	387.464416504	283.547058105	572.071166992	694.168151855	621.416381836	448.868499756	416.545959473	590.630859375	558.047790527	741.34552002	863.442565918	653.737487793	903.904602051	735.059753418	673.154785156	557.96496582	563.108215332	415.440368652	168.583480835	106	167.749603271	328.610290527	350.713775635	431.119110107	339.629882812	405.96395874	456.524047852	612.500366211	551.687927246	554.607421875	528.49987793	619.61932373	539.690612793	553.25	538.987915039	613.904968262	629.476501465	578.702148438	372.297515869	339.805419922	353.226318359	342.678649902	333.809295654	329.5	216.583755493	263.429046631	299.623474121	260.750152588	130.594299316	149.476104736	155.297592163	117.512107849	61.0708694458	179.035110474	128.808853149	171.488586426	105.66658783	56.2207145691	39.8570213318	47.8571510315	36.3213653564	34.5356559753	43.8810653687	48.797542572	50.3118209839	51.2980194092	57.3094787598	63.9760704041	38.8808364868	36.2618675232	35.8212471008	58.4285202026	54.3809051514	57.416683197	54.9641494751	76.3507614136	104.60710907	105.570884705	155.881790161	210.511795044	236.738067627	247.452209473	356.792572021	305.57119751	259.963928223	315.333099365	338.392791748	305.107269287	260.952301025	218.559432983	213.809783936	193.976303101	171.26171875	197.376327515	214.59552002	196.607131958	190.785614014	187.726226807	172.999984741	171.666732788	165.3644104	151.452453613	133.190567017	115.880714417	98.4404525757	94.6904449463	77.4646453857	59.3215522766	36.3096046448	20.4404907227	19.0952243805	8.14297962189	0	0	0	0	0	0	0	0	0	0	0	0	0	0	0	0	0	0	0	0	0	0	0	0	0	0	0	0	0	0	0	0	0	0	0	0	0	0	0	0	0	0	0	0	0	0	0	0	0	0	0	0	0
643.124450684	592.908081055	707.253417969	721.582885742	781.418334961	670.956970215	533.305725098	242.277572632	402.749786377	386.555236816	259.291137695	299.707763672	219.075973511	227.458450317	214.472183228	176.707855225	164	174.235748291	314.41708374	392.694610596	531.429931641	900.444152832	708.860473633	514.378112793	464.820465088	513.528320312	360.666595459	378.040710449	481.526489258	366.192810059	398.469055176	370.44342041	392.902252197	316.305084229	388.34664917	382.499572754	309.526397705	291.361053467	318.165618896	646.446899414	643.485473633	860.68145752	582.444335938	638.541992188	561.930725098	527.387695312	602.125061035	677.666381836	931.104614258	725.151855469	1111.63867188	910.943725586	686.777099609	506.58303833	406.999755859	325.067932129	106.499900818	111.249397278	377.069854736	485.22744751	494.889129639	549.778137207	396.262664795	539.764587402	478.583282471	569.417053223	569.893920898	539.890136719	490.417022705	490.485229492	525.875793457	519.111328125	477.624755859	552.833557129	610.390380859	603.791809082	380.98626709	312.833190918	379.55557251	313.694885254	253.318771362	316.610656738	322.041992188	176.986282349	147.469589233	150.610031128	194.236221313	189.736160278	214.277450562	356.153045654	87.6105499268	70.5980300903	77.8606872559	48.5273284912	87.1799545288	61.9848060608	39.1110877991	37.6246871948	43.3340568542	34.4720916748	32.1944084167	34.7637405396	57.0449905396	46.9586410522	38.8887557983	33.0277709961	34.8612747192	54.5693359375	54.7777252197	54.4304733276	60.5972595215	61.7221336365	83.8472518921	129.697128296	219.444137573	260.181335449	160.025802612	182.72203064	173.610916138	207.874160767	332.287567139	395.055633545	350.902770996	403.332489014	291.846862793	231.694473267	209.930297852	205.93057251	188.929946899	221.791854858	216.208358765	221.620651245	200.041931152	190.750061035	170.847244263	162.95803833	181.986190796	154.875061035	148.287536621	129.846862793	131.30557251	111.138900757	114.791999817	83.3893508911	65.4443130493	36.0972213745	24.1111621857	6.54173612595	0	0	0	0	0	0	0	0	0	0	0	0	0	0	0	0	0	0	0	0	0	0	0	0	0	0	0	0	0	0	0	0	0	0	0	0	0	0	0	0	0	0	0	0	0	0	0	0	0	0	0	0	0	0	0
951.720153809	739.626159668	684.41607666	501.623718262	443.777099609	460.151672363	306.805114746	229.041213989	225.625213623	259.846618652	202.499771118	187.833236694	211.393814087	194.722625732	168.264007568	177.694107056	180.596969604	208.166656494	394.139129639	689.058166504	545.931884766	924.04309082	631.401733398	794.802856445	805.91796875	710.26361084	562.652709961	341.124786377	351.513885498	397.278503418	397.575592041	422.000488281	379.791687012	412.069854736	329.680358887	359.916992188	422.069915771	537.931091309	758.462768555	661.610778809	628.512939453	756.757324219	543.208007812	761.570556641	564.583435059	668.416259766	514.583190918	794.834289551	843.074829102	1040.71142578	853.331970215	698.083007812	554.999694824	431.166442871	244.776885986	148.87461853	106	196.73614502	506.889190674	675.71282959	647.556274414	522.054626465	441.805633545	633.624755859	657.903015137	534.819519043	482.606170654	377.250061035	331.944152832	281.097015381	272.152496338	349.540893555	411.416687012	488.596923828	596.889587402	474.277404785	518.263549805	293.272979736	366.38861084	446.597808838	313.388671875	205.861175537	179.013885498	190.027877808	204.196792603	251.500259399	285.985992432	230.041381836	255.527557373	281.707824707	165.582717896	136.682281494	98.624961853	73.6659164429	70.7362670898	60.439201355	37.2219314575	35.5000419617	46.2221565247	32.9028511047	33.2359275818	50.9164085388	63.8641319275	47.3886222839	36.2220420837	45.1529426575	59.6666755676	52.0140800476	57.7638473511	67.8888778687	71.6943130493	90.3333587646	147.027999878	228.075836182	298.264190674	232.250030518	205.722488403	161.333023071	164.597137451	196.263977051	226.439208984	271.527526855	223.430130005	205.458053589	192.999862671	172.11114502	159.722137451	153.749923706	153.458343506	152.736160278	149.180328369	154.393753052	155.194137573	150.929992676	151.819335938	159.500091553	140.680541992	132.889053345	136.21244812	120.416519165	107.944259644	85.8748779297	76.2637557983	58.6527061462	33.0417289734	24.7639350891	14.9863061905	0	0	0	0	0	0	0	0	0	0	0	0	0	0	0	0	0	0	0	0	0	0	0	0	0	0	0	0	0	0	0	0	0	0	0	0	0	0	0	0	0	0	0	0	0	0	0	0	0	0	0	0	0	0	0	0
849.666564941	556.819030762	468.444091797	400.375091553	307.416748047	242.272476196	247.000198364	286.569580078	429.236175537	370.124969482	242.652175903	337.500671387	239.409164429	180.430358887	209.180755615	326.402923584	211.94468689	216.569290161	438.305664062	877.944152832	952.823730469	759.152526855	525.833618164	764.742553711	718.874816895	529.609741211	345.221801758	433.77734375	588.362365723	702.681335449	612.923522949	526.12512207	577.569580078	669.305786133	467.91619873	587.041320801	716.77947998	786.291992188	978.445617676	864.515075684	629.86138916	575.711914062	596.806518555	841.945495605	631.52722168	812.152709961	600.806091309	713.805053711	692.998474121	802.096801758	677.930297852	531.124755859	397.069244385	292.652526855	199.472457886	106	106.805397034	266.65335083	473.222167969	500.484344482	614.861328125	561.360534668	528.625305176	577.791809082	506.541748047	500.263946533	464.197235107	518.430480957	471.625610352	434.389038086	426.04309082	267.291595459	295.083221436	448.000183105	499.638549805	408.055603027	351.638549805	346.287994385	258.833251953	247.165878296	232.222518921	215.042190552	273.944824219	251.735992432	305.106842041	341.208587646	350.45904541	245.667160034	335.152679443	260.041564941	189.638839722	121.666435242	129.958465576	115.083435059	95.5000991821	78.5608596802	70.7227859497	61.7914237976	46.6386184692	50.7917518616	55.0692405701	48.3335800171	35.4854278564	51.140422821	62.0276794434	54.3333511353	56.0556640625	61.2919235229	72.3189697266	69.8195266724	76.3054428101	117.694206238	250.014099121	296.409454346	256.485443115	210.291717529	208.402526855	254.499740601	154.90272522	169.888717651	180.181716919	186.819274902	179.34703064	165.375	150.055358887	139.277603149	132.263717651	138.180389404	130.902862549	128.583374023	131.41645813	139.485061646	132.833129883	142.069549561	134.986236572	126.930259705	141.986068726	158.944793701	113.923980713	91.4582672119	75.5132675171	68.9444122314	51.7502365112	37.9305229187	31.1112060547	21.4167785645	7.01407909393	0	0	0	0	0	0	0	0	0	0	0	0	0	0	0	0	0	0	0	0	0	0	0	0	0	0	0	0	0	0	0	0	0	0	0	0	0	0	0	0	0	0	0	0	0	0	0	0	0	0	0	0	0	0	0	0
552.360107422	516.666687012	915.806091309	624.180175781	531.055603027	313.529571533	243.471755981	396.986022949	659.515380859	337.472167969	370.180541992	249.263473511	213.999893188	359.624816895	252.735458374	491.042938232	211.63949585	215.111175537	405.361236572	728.405517578	657.208435059	605.17980957	316.818572998	362.529205322	362.166412354	340	407.152587891	551.179382324	720.763793945	897.362426758	654.969360352	514.083068848	663.791564941	736.221618652	518.652282715	734.403503418	761.208435059	627.929626465	770.693664551	679.014099121	534.139038086	493.394317627	767.973632812	716.930419922	806.123596191	967.585388184	587.749267578	527.33380127	570.530273438	544.264160156	399.680603027	287.166656494	237.333267212	215.069564819	118.985656738	106	211.694534302	364.708312988	324.277648926	357.029632568	627.027709961	682.943664551	577.513793945	692.958862305	653.180358887	704.125183105	674.576416016	649.569213867	554.805175781	635.48651123	499.527740479	418.542205811	266.583221436	309.361450195	389.013763428	487.666564941	425.472076416	282.499786377	233.263778687	260.569458008	269.666656494	320.958557129	321.139160156	281.805725098	357.802978516	372.805053711	339.596038818	370.318817139	256.084106445	138.347366333	143.7084198	90.5831298828	135.749893188	108.596717834	106.722373962	101.105918884	88.4303817749	78.6108551025	71.4025115967	63.6665458679	48.8055267334	44.2917098999	59.954788208	90.208442688	95.2918930054	73.3195724487	62.6388664246	69.5276794434	75.986114502	88.9722290039	89.7776260376	128.875457764	216.736663818	302.80368042	186.666549683	210.652740479	152.87437439	142.041625977	133.236053467	130.166671753	150.531097412	138.180618286	136.235870361	144.93057251	135.902801514	124.583343506	119.458343506	119.208374023	128.277801514	122.847351074	120.708244324	107.090888977	106.180847168	110.222328186	109.944145203	80.1111831665	69.6249465942	51.4860076904	51.1212921143	52.3194541931	51.2360572815	49.2497901917	37.9443626404	29.1111812592	20.1111240387	0.347155243158	0	0	0	0	0	0	0	0	0	0	0	0	0	0	0	0	0	0	0	0	0	0	0	0	0	0	0	0	0	0	0	0	0	0	0	0	0	0	0	0	0	0	0	0	0	0	0	0	0	0	0	0	0	0	0	0	0
480.456848145	538.013977051	720.890014648	522.582336426	296.26260376	178.394088745	302.388793945	574.347229004	499.984863281	350.847076416	351.749938965	246.596939087	379.636077881	436.139648438	387.27734375	503.736236572	160.916824341	186.124969482	417.430847168	897.280212402	961.9609375	547.360351562	276.332763672	739.136047363	538.639282227	413.249816895	698.846313477	489.554534912	1045.65393066	833.16595459	652.287719727	690.36138916	483.457885742	649.195068359	599.15222168	599.681335449	588.847229004	567.750915527	468.000274658	532.097900391	402.347717285	529.484924316	686.847167969	801.665771484	768.555053711	708.055603027	613.291809082	445.250274658	379.95489502	302.597198486	259.847229004	217.500045776	179.722244263	106	106	166.763931274	401.429870605	504.805664062	532.014343262	409.938964844	605.818786621	853.347595215	699.542785645	820.402587891	818.903137207	780.860168457	805.666870117	622.125427246	778.500610352	731.930480957	604.541442871	459.527618408	324.985961914	270.013702393	267.874938965	267.694274902	274.597839355	266.681518555	356.13873291	388.749633789	347.735992432	369.374633789	418.847595215	326.12512207	305.999755859	391.138977051	303.902832031	280.847412109	172.485748291	153.319763184	136.250213623	81.847076416	96.3611907959	116.749954224	106.583351135	108.363777161	90.0277709961	81.2919387817	71.9026031494	59.2777252197	73.8758621216	90.6110153198	135.469558716	123.278282166	95.2214584351	83.8332748413	87.2640304565	96.6805877686	96.1109237671	108.263954163	114.013664246	225.347503662	217.943878174	270.970855713	219.833328247	168.221908569	160.638717651	178.097518921	160.52784729	139.319595337	117.575759888	102.888946533	98.8054504395	113.347068787	150.777359009	146.222412109	133.791702271	114.027694702	108.833366394	127.722892761	112.833221436	95.545463562	97.3472671509	94.1944046021	75.6523742676	67.8614120483	61.9999542236	43.9028778076	38.7573661804	40.5832672119	40.1388626099	29.0969467163	27.7500324249	18.8336925507	2.13881134987	0	0	0	0	0	0	0	0	0	0	0	0	0	0	0	0	0	0	0	0	0	0	0	0	0	0	0	0	0	0	0	0	0	0	0	0	0	0	0	0	0	0	0	0	0	0	0	0	0	0	0	0	0	0	0	0	0	0
625.430603027	379.263580322	525.197875977	203.985427856	108.555358887	305.772644043	388.694702148	510.194519043	443.554931641	457.611083984	345.318359375	509.584075928	588.257568359	424.942657471	587.333557129	279.72253418	154.611282349	173.902404785	275.597442627	754.848510742	631.555175781	273.208190918	533.375671387	572.576660156	435.514465332	605.972167969	755.832885742	671.568786621	1007.80688477	875.460021973	630.636230469	727.139404297	509.041931152	376.930633545	295.194610596	257.222503662	214.416885376	186.915985107	200.000427246	239.708511353	260.152893066	585.227172852	618.152099609	662.833190918	574.403137207	544.708557129	508.361022949	394.763824463	250.257873535	238.652862549	201.639022827	140.847457886	106	106	107.930221558	274.999633789	462.208404541	655.737609863	454.805206299	543.696044922	565.77746582	832.153320312	811.569763184	768.458435059	752.624389648	738.972412109	662.090209961	534.986938477	678.236633301	751.210144043	471.76449585	395.624847412	421.708404541	358.499572754	331.944061279	310.499725342	311.38885498	307.757720947	401.318969727	534.110961914	427.319915771	533.222717285	416.346923828	278.985839844	442.697265625	373.930877686	308.73651123	184.305084229	219.569717407	144.083312988	108.972229004	94.250579834	83.0692443848	98.3889465332	92.6667175293	91.5000534058	96.9999389648	85.2216415405	65.0836410522	43.1945991516	84.1941070557	124.735733032	141.348876953	129.333465576	112.972229004	105.944297791	103.222175598	102.041717529	139.430679321	162.180267334	218.679763794	270.791381836	280.834381104	244.818603516	214.09727478	185.041549683	177.902587891	174.097442627	149.027755737	123.083335876	118.924171448	121.680595398	157.09703064	120.916572571	85.8193435669	110.916748047	138.041671753	129.9168396	134.889175415	92.7916030884	77.9997711182	70.9094924927	69.0556793213	80.3750305176	90.1390914917	62.624912262	37.8888511658	32.4581108093	32.1367149353	27.513923645	12.0136938095	10.8469743729	8.73620510101	0	0	0	0	0	0	0	0	0	0	0	0	0	0	0	0	0	0	0	0	0	0	0	0	0	0	0	0	0	0	0	0	0	0	0	0	0	0	0	0	0	0	0	0	0	0	0	0	0	0	0	0	0	0	0	0	0	0	0	0
673.703063965	574.476074219	243.892822266	100.261512756	454.345703125	520.597717285	430.642730713	425.666748047	453.905395508	467.202270508	354.95223999	416.904754639	489.16809082	490.14251709	233.618515015	136.464080811	258.666381836	337.012298584	188.178527832	323.916625977	420.059265137	364.726226807	738.928771973	405.570800781	406.785736084	720.142822266	824.559326172	620.594787598	751.155212402	637.011413574	506.727111816	503.202545166	317.273681641	220.035400391	249.202301025	256.928497314	285.762298584	291.285430908	287.940765381	193.571380615	154.606933594	361.389404297	427.63168335	472.249816895	444.166564941	429.726074219	341.40536499	216.833312988	137.753799438	106	106	106	148.976242065	146.298049927	239.52406311	443.084106445	519.535827637	668.809570312	498.856842041	645.817993164	419.868438721	722.690612793	757.988586426	617.320617676	733.737854004	595.558898926	749.533203125	553.297912598	443.999603271	538.915893555	626.012695312	654.417236328	565.749694824	455.952209473	449.000091553	354.761993408	289.094940186	410.585235596	421.714019775	526.73815918	524.618713379	540.476379395	467.273681641	433.644104004	328.337860107	287.595062256	246.321762085	265.738586426	164.583282471	127.32081604	103.64263916	74.5116653442	88.7263183594	62.1429786682	105.381034851	77.5711364746	82.1667327881	71.5596313477	49.2021865845	59.7501296997	133.619064331	137.976074219	131.29864502	123.714431763	114.773826599	116.964202881	114.357093811	125.916702271	170.916717529	269.67791748	246.678543091	193.940505981	194.79776001	219.624038696	216.012695312	207.154815674	160.511535645	143.833465576	139.154998779	125.547416687	143.415512085	148.46421814	149.321304321	138.845230103	103.713897705	74.3571624756	61.1429519653	70.5596618652	78.047706604	66.7613830566	52.4880104065	46.4155158997	70.95262146	74.4287109375	54.154258728	30.4521503448	17.9761981964	8.67859172821	9.96120929718	6.72625494003	8.10712814331	5.32123613358	0	0	0	0	0	0	0	0	0	0	0	0	0	0	0	0	0	0	0	0	0	0	0	0	0	0	0	0	0	0	0	0	0	0	0	0	0	0	0	0	0	0	0	0	0	0	0	0	0	0	0	0	0	0	0	0	0	0	0	0	0
341.583435059	216.261734009	55.2856750488	309.012634277	563.953186035	454.675201416	478.404418945	177.963668823	228.939819336	411.381195068	418.39276123	267.261657715	188.843338013	174.666595459	125.571342468	187.857025146	430.963653564	601.856933594	325.499908447	195.630859375	210.773590088	304.214172363	730.383239746	421.285308838	587.036010742	740.796936035	707.295715332	807.405151367	541.464477539	384.166381836	277.973968506	226.249816895	243.428192139	381.083557129	498.047302246	493.952301025	480.584655762	405.821350098	473.916564941	323.334289551	264.63180542	138.337585449	158.333786011	184.534698486	211.737976074	182.952758789	128.10710144	106.059516907	106	158.357452393	214.297668457	262.261993408	346.606781006	240.166702271	316.106506348	479.309417725	679.202453613	774.476196289	652.439025879	570.129882812	499.869232178	465.535430908	613.702392578	658.143615723	549.917114258	598.476623535	570.052124023	586.381530762	423.297790527	511.464813232	688.094665527	539.249755859	673.036071777	613.214416504	505.321502686	332.392547607	326.071624756	493.116912842	476.203155518	571.202880859	524.416625977	506.678588867	502.08303833	471.893188477	310.12902832	243.119018555	199.416763306	216.011734009	170.357192993	119.9164505	115.428611755	98.4044418335	76.9401092529	49.2141151428	60.7736625671	81.4809341431	65.8094024658	62.5951919556	34.2975769043	100.880844116	114.380897522	132.15473938	132.078567505	134.619216919	134.868865967	130.595169067	137.940490723	153.976333618	243.095397949	309.202545166	210.10697937	214.488265991	129.856918335	171.856506348	187.785644531	181.404693604	133.059539795	111.261978149	93.2500915527	89.4762954712	96.1428222656	115.964538574	117.357429504	114.511978149	100.083328247	91.321472168	79.3690032959	61.0594062805	42.6189498901	35.0119018555	28.6310043335	28.4153499603	29.8094081879	33.0595703125	42.8452529907	32.4287834167	10.9642953873	7.51197385788	7.12984275818	9.41664791107	10.2974271774	5.72608137131	0	0	0	0	0	0	0	0	0	0	0	0	0	0	0	0	0	0	0	0	0	0	0	0	0	0	0	0	0	0	0	0	0	0	0	0	0	0	0	0	0	0	0	0	0	0	0	0	0	0	0	0	0	0	0	0	0	0	0	0	0
35.4167366028	73.2021179199	212.035522461	290.261047363	647.939758301	520.648254395	236.000518799	284.809783936	730.404785156	640.262023926	542.048278809	418.048309326	199.155853271	109.869194031	233.166732788	447.321289062	316.595092773	774.31072998	488.154754639	270.0831604	413.571105957	539.940734863	342.094787598	428.661987305	781.190368652	726.796936035	789.119384766	529.511352539	358.369293213	255.368789673	321.623199463	439.499328613	445.273681641	567.726074219	607.88104248	589.797302246	657.095153809	550.88104248	692.143615723	490.679168701	430.261962891	294.727020264	182.213821411	170.928253174	115.678314209	106	106	118.345100403	217.857437134	305.440032959	394.821136475	513.916870117	349.547943115	340.309661865	494.059997559	389.297424316	580.88104248	778.142822266	684.66619873	726.246765137	503.285369873	486.523895264	410.321350098	399.845092773	325.904571533	326.166717529	311.065155029	316.618591309	291.928375244	282.904785156	509.142608643	514.821472168	660.369384766	510.213195801	631.130981445	431.191192627	312.428344727	499.350616455	531.012268066	526.024169922	472.131103516	431.333709717	432.297576904	339.54776001	284.000030518	231.999984741	203.559402466	191.356826782	157.320983887	140.416534424	115.797554016	94.0116119385	85.3570785522	56.0593261719	34.3212852478	40.4414787292	45.3093795776	35.5711936951	49.1192932129	72.1073989868	111.905258179	111.714035034	120.415367126	118.999984741	127.130935669	148.404876709	159.26184082	223.726623535	315.916931152	204.952331543	241.035842896	175.571228027	148.677703857	116.791954041	184.452972412	156.191009521	92.1662979126	55.7259597778	34.6902770996	29.3927154541	39.3376197815	51.2858505249	60.118850708	82.7024383545	103.20249176	96.2024765015	81.1904296875	84.1309585571	56.6308479309	43.3332977295	42.8095283508	32.5583648682	43.7616653442	35.5118370056	4.67847537994	0	0	0	5.85715341568	8.00000286102	6.49994087219	0	0	0	0	0	0	0	0	0	0	0	0	0	0	0	0	0	0	0	0	0	0	0	0	0	0	0	0	0	0	0	0	0	0	0	0	0	0	0	0	0	0	0	0	0	0	0	0	0	0	0	0	0	0	0	0	0	0	0	0	0	0
394.473327637	251.609619141	474.179840088	508.026916504	618.334960938	344.83493042	118.388679504	533.333618164	480.179321289	379.804718018	346.568786621	284.22164917	119.136260986	164.152770996	380.513824463	733.098388672	396.013977051	748.61151123	625.041564941	355.124481201	409.609863281	815.888244629	438.401855469	678.075866699	539.457458496	816.903686523	629.708618164	409.958007812	299.125091553	581.167236328	647.424865723	744.153747559	620.222717285	713.862182617	731.527648926	807.874328613	748.582702637	768.833190918	597.041137695	541.513977051	531.541687012	566.349243164	499.764465332	375.791534424	117.444389343	110.583351135	201.278396606	282.902557373	290.31918335	498.819213867	607.652832031	493.319580078	379.097839355	424.30557251	530.833740234	530.319702148	565.610778809	845.028381348	768.541625977	784.880737305	660.444335938	637.666992188	613.500366211	557.917419434	623.027893066	630.013977051	532.771789551	551.694763184	632.820251465	417.2784729	298.125793457	266.262664795	291.235687256	287.374237061	315.846069336	263.888702393	379.000701904	418.924102783	435.291290283	493.528198242	397.263885498	402.638671875	323.167572021	297.000061035	250.438934326	231.847061157	217.13873291	195.236068726	166.736434937	141.012557983	123.639022827	103.221992493	90.7222366333	57.1667823792	43.1942634583	35.0759773254	31.458524704	69.2085113525	72.2218399048	76.4580535889	77.7500762939	110.77771759	120.727104187	121.750053406	129.555603027	147.819396973	238.485916138	187.180587769	241.944549561	247.638824463	171.388275146	138.888763428	103.34690094	161.819396973	104.097305298	43.0138435364	37.3060035706	28.2497386932	19.9998073578	23.5136909485	19.0453166962	50.0969161987	98.2499313354	108.082931519	80.4443588257	70.8886108398	37.0829811096	11.7632322311	4.61107158661	4.91691875458	0	0.363552898169	6.26368808746	0	0	0	0	0	0	1.11089682579	4.94434070587	0	0	0	0	0	0	0	0	0	0	0	0	0	0	0	0	0	0	0	0	0	0	0	0	0	0	0	0	0	0	0	0	0	0	0	0	0	0	0	0	0	0	0	0	0	0	0	0	0	0	0	0	0	0	0	0	0	0	0	0	0	0
518.485168457	638.889892578	784.890380859	457.138122559	489.791748047	143.16619873	193.40272522	318.651641846	274.402496338	260.471832275	196.666290283	169.069198608	101.288032532	403.374359131	584.889709473	813.194702148	678.168518066	532.76385498	546.527893066	585.278686523	326.665252686	500.526397705	438.220123291	786.334411621	445.082946777	743.140563965	751.88885498	681.916137695	350.444030762	546.194580078	895.667114258	891.668212891	642.708435059	837.390625	713.166564941	605.91583252	782.95916748	636.221923828	533.972351074	513.361083984	513.194458008	492.469787598	312.347106934	137.763381958	159.63848877	188.541305542	282.027709961	354.444549561	378.92388916	437.055541992	516.042175293	451.124847412	476.80569458	481.624755859	610.111022949	556.611022949	568.403198242	585.097167969	730.597595215	743.545532227	732.749816895	743.528442383	533.305419922	720.096740723	818.930664062	504.666015625	651.847717285	728.528198242	668.859985352	588.887634277	415.90322876	534.083862305	461.277954102	488.026885986	377.249633789	449.832733154	273.69442749	411.136047363	370.792480469	416.138824463	302.417358398	298.471832275	257.5128479	232.999740601	212.272613525	204.291809082	191.194396973	172.416854858	150.02746582	144.902679443	128.889541626	96.3054962158	92.1945648193	97.7644577026	46.2220878601	33.6519050598	15.3056898117	32.9303665161	61.472026825	68.2635879517	87.0276641846	79.5139846802	100.439186096	112.138786316	126.055427551	128.000030518	154.764648438	264.596466064	237.527679443	260.541595459	218.429824829	146.736175537	125.194267273	25.8180198669	16.1527366638	31.6662445068	42.5970153809	43.2779273987	37.9584121704	41.0557365417	22.9699993134	7.47210025787	19.916469574	53.8195610046	44.9443359375	37.1944198608	5.87471055984	0	0	0	0	0	0	0	0	0	0	0	0	0	0	0	0	0	0	0	0	0	0	0	0	0	0	0	0	0	0	0	0	0	0	0	0	0	0	0	0	0	0	0	0	0	0	0	0	0	0	0	0	0	0	0	0	0	0	0	0	0	0	0	0	0	0	0	0	0	0	0	0	0	0	0	0
704.26348877	933.154052734	523.515380859	295.332977295	155.193954468	130.0599823	313.166473389	394.721740723	431.208618164	402.930725098	368.777648926	171.986465454	169.787658691	476.06930542	704.847717285	602.861572266	393.236755371	282.971984863	367.62487793	502.903198242	339.014038086	599.34753418	378.235687256	605.773254395	382.610076904	752.583679199	771.193054199	598.264343262	378.749908447	691.109741211	671.863708496	630.805480957	537.568786621	760.543151855	689.832580566	526.055725098	499.569610596	484.38848877	431.069946289	466.097991943	355.999633789	214.07598877	157.208618164	188.763793945	241.832778931	297.652770996	372.77746582	527.098388672	491.197021484	474.819213867	465.416564941	411.88885498	485.79107666	679.139160156	581.361328125	498.305786133	371.277526855	348.499908447	437.000488281	607.666442871	650.388671875	671.597351074	495.999908447	854.180969238	754.096313477	546.31854248	446.66607666	724.319458008	725.124816895	587.138000488	734.014038086	683.779663086	640.110961914	640.041748047	623.360900879	538.486572266	275.123931885	317.242156982	256.832672119	266.152740479	248.014343262	273.612091064	210.055984497	171.931564331	165.242599487	147.68057251	123.305847168	122.348083496	126.137329102	116.527519226	100.166801453	93.5826797485	67.2638015747	51.4717445374	50.9586219788	40.9848480225	22.444103241	29.1806335449	68.777885437	84.5417556763	92.2635116577	102.222267151	102.075828552	107.624801636	122.319488525	143.25	175.194152832	247.180480957	189.667572021	236.027816772	171.84828186	54.9305610657	10.4862098694	9.72710609436	14.4582328796	9.66664028168	13.6806306839	8.47215747833	8.84705924988	0.0416586324573	0	0	0	0	0	0	0	0	1.26364517212	53.9862823486	87.1251449585	42.0457687378	0	0	0	0	0	0	0	0	0	0	0	0	0	0	0	0	0	0	0	0	0	0	0	0	0	0	0	0	0	0	0	0	0	0	0	0	0	0	0	0	0	0	0	0	0	0	0	0	0	0	0	0	0	0	0	0	0	0	0	0	0	0	0	0	0	0	0	0	0	0	0
406.026672363	664.208740234	450.515319824	125.680709839	79.5831069946	275.408081055	525.208007812	617.000549316	521.861755371	391.12487793	343.126281738	74.5415420532	246.393310547	481.486816406	293.430358887	239.846817017	285.429901123	475.542419434	356.472351074	265.027069092	246.638687134	448.37512207	418.874389648	339.015869141	532.291137695	679.124694824	607.319396973	394.124725342	608.347045898	712.652526855	663.091003418	545.902770996	460.777679443	482.277709961	488.222229004	443.472106934	416.652252197	322.722564697	242.819198608	208.625549316	141.833358765	167.485092163	213.7081604	237.916687012	342.555267334	458.66595459	525.167114258	559.570129395	549.257995605	541.139953613	395.222106934	438.180358887	517.958251953	614.707946777	669.805236816	618.11114502	543.819641113	461.569335938	348.693939209	353.907928467	493.999664307	483.110626221	471.583221436	658.234619141	808.722473145	697.458190918	444.529632568	484.500183105	705.291625977	547.331787109	666.153198242	587.096740723	627.819458008	507.55569458	502.73614502	422.277648926	446.597198486	214.968032837	194.84677124	179.8334198	189.930755615	187.805786133	164.194641113	170.777709961	166.515045166	149.332733154	140.292327881	123.902809143	104.777420044	78.5268783569	92.0421066284	91.9443740845	94.9442062378	57.8749504089	61.8889312744	38.9239463806	13.1661729813	30.3737678528	31.3056316376	69.4306182861	112.80532074	122.06917572	116.10597229	106.930435181	117.958053589	179.555480957	171.791229248	240.055603027	196.68069458	136.486373901	45.5975875854	10.6389274597	12.8475036621	9.54539966583	9.97205257416	9.77782058716	9.24995994568	9.79179191589	3.33321356773	0	0	0	0	0	0	0	0	0	58.958366394	76.734954834	52.0137214661	13.8636636734	6.54175519943	2.3889503479	14.2916107178	16.9585342407	1.04146575928	0	0	0	0	0	0	0	0	0	0	0	0	0	0	0	0	0	0	0	0	0	0	0	0	0	0	0	0	0	0	0	0	0	0	0	0	0	0	0	0	0	0	0	0	0	0	0	0	0	0	0	0	0	0	0	0	0	0	0	0	0	0	0	0	0	0
211.821640015	454.381469727	138.035339355	54.6901512146	228.035919189	499.312316895	553.201904297	515.821777344	385.178405762	148.345077515	60.5832710266	173.523483276	422.870635986	226.725662231	287.262268066	568.798034668	460.582977295	638.477233887	459.308837891	497.738067627	270.523742676	273.868988037	354.702606201	314.285797119	515.940429688	594.773681641	464.678588867	407.952270508	553.00012207	566.083435059	490.506713867	426.571502686	365.320678711	372.404388428	355.785461426	322.928405762	308.404968262	193.273880005	142.809402466	145.035675049	217.655517578	282.116912842	307.071228027	361.274078369	630.286071777	523.392700195	605.250305176	580.559631348	566.754089355	479.560455322	361.059692383	451.357543945	381.606719971	548.035766602	600.714538574	558.452148438	509.166534424	441.261932373	325.273406982	275.726196289	366.274688721	324.476165771	471.952636719	572.155456543	603.427978516	672.666687012	582.10333252	360	697.929016113	642.238525391	548.547241211	540.214477539	544.404663086	473.511779785	392.690643311	404.380615234	340.214324951	294.84475708	203.547286987	297.869720459	198.70223999	177.761932373	201.095245361	205.047836304	190.922134399	178.774291992	165.023498535	144.107437134	112.595230103	126.964599609	95.4764556885	85.0953598022	80.5956573486	64.6185379028	70.1907806396	29.9741954803	10.1548814774	12.7498111725	30.8453044891	60.2617454529	100.725868225	102.154701233	110.467666626	128.725738525	171.273925781	191.274291992	242.869186401	160.655029297	120.57144165	30.6436462402	10.2499647141	15.8570213318	9.90477561951	9.71433353424	9.71432590485	9.85702133179	8.57136631012	0	0	0	0	0	0	0	0	0	9.60733127594	65.1667785645	55.0593986511	57.6780700684	50.2498435974	16.4416294098	19.2260723114	13.2622280121	12.3096027374	5.79750585556	0	0	0	0	0	0	0	0	0	0	0	0	0	0	0	0	0	0	0	0	0	0	0	0	0	0	0	0	0	0	0	0	0	0	0	0	0	0	0	0	0	0	0	0	0	0	0	0	0	0	0	0	0	0	0	0	0	0	0	0	0	0	0	0	0	0	0
122.546775818	84.5237808228	49.9642829895	134.999954224	367.380401611	406.778808594	351.725921631	329.881225586	115.428504944	88.1186599731	391.215057373	585.726745605	262.805114746	327.488250732	490.083343506	805.369873047	607.417724609	360.19052124	295.606994629	279.000152588	238.928390503	192.488174438	177.809860229	182.830566406	344.345458984	438.952423096	391.618835449	446.369140625	443.309265137	438.690124512	416.895721436	262.797332764	188.904586792	207.178848267	150.464096069	146.023803711	146.000061035	145.666290283	161.380630493	247.333328247	265.78604126	466.506530762	457.393157959	322.59576416	607.583190918	600.678466797	640.606506348	545.654418945	398.636749268	358.964477539	414.107055664	539.725524902	422.511779785	340.571289062	462.773834229	530.963623047	582.654663086	572.952087402	541.60760498	403.194549561	235.261489868	235.856994629	501.107971191	352.809448242	478.404815674	625.833374023	697.143310547	392.464569092	360.17855835	537.72668457	451.583496094	411.940490723	420.988250732	414.130401611	331.499481201	261.904724121	228.690246582	232.518188477	298.797576904	253.285614014	192.273513794	212.869827271	201.595153809	194.678512573	178.831695557	144.226150513	121.463806152	112.71395874	115.928726196	97.2741317749	91.8809738159	94.1072616577	43.7857513428	48.0239562988	34.9284744263	22.0263137817	5.92843961716	9.57134342194	40.8456993103	58.1666603088	73.1070480347	73.5831985474	127.467750549	180.666915894	206.619247437	233.65473938	233.5365448	140.273651123	101.691116333	10.4762716293	10.118888855	10.4286489487	9.24996471405	9.01297664642	9.82135486603	8.91667842865	0	0	0	0	0	0	0	0	0	28.0833683014	78.833366394	82.7143478394	35.0830688477	25.2023658752	15.6306915283	11.6494054794	9.99999332428	21.1189918518	13.4522972107	8.70227527618	0	0	0	0	0	0	0	0	0	0	0	0	0	0	0	0	0	0	0	0	0	0	0	0	0	0	0	0	0	0	0	0	0	0	0	0	0	0	0	0	0	0	0	0	0	0	0	0	0	0	0	0	0	0	0	0	0	0	0	0	0	0	0	0	0	0	0
349.874786377	52.8891639709	38.9860687256	174.652862549	211.582275391	242.287612915	245.58265686	70.1518859863	95.3193817139	298.902679443	552.139709473	319.609924316	258.893829346	459.345977783	492.360565186	602.235107422	521.180541992	286.472106934	486.696166992	426.375427246	274.917297363	350.750610352	320.36126709	190.485778809	186.513763428	309.944274902	414.028289795	495.194793701	500.043151855	285.999816895	165.968948364	180.957351685	212.252029419	232.014373779	379.653869629	253.236114502	251.361450195	208.374649048	261.110961914	508.58493042	410.458435059	560.50012207	554.611083984	389.320770264	334.193145752	557.278259277	605.638671875	466.665771484	456.5	231.581558228	442.999603271	616.95892334	617.291748047	349.875183105	383.222106934	440.055450439	522.263122559	465.513671875	481.360961914	556.909729004	428.194213867	231.945922852	218.652740479	222.999572754	313.846801758	408.56854248	499.044494629	514.194946289	428.527770996	361.472259521	402.47253418	343.958312988	345.569244385	299.609649658	237.23600769	200.263275146	255.027664185	281.12097168	260.041259766	219.166870117	242.486343384	221.194381714	195.055633545	179.929702759	138.863433838	120.333320618	94.1106185913	102.167167664	73.5689926147	79.6251220703	75.1805877686	37.6804389954	44.7227363586	24.2082939148	16.1525554657	16.6811580658	21.6679191589	7.09728956223	29.0701751709	30.9582958221	63.8611717224	99.8751602173	216.091125488	193.111602783	147.98626709	144.610839844	128.943450928	104.415084839	11.6110181808	11.1527481079	14.2914628983	13.3887805939	9.8055934906	10.3031368256	8.66659641266	2.65284466743	0	0	0	0	0	0	62.2224273682	87.6677932739	64.458404541	48.5004119873	37.4310684204	41.8476219177	24.1110363007	20.2777233124	29.7083415985	10.6210641861	9.24995136261	14.2361278534	12.8747282028	7.43047237396	0	0	0	0	0	0	0	0	0	0	0	0	0	0	0	0	0	0	0	0	0	0	0	0	0	0	0	0	0	0	0	0	0	0	0	0	0	0	0	0	0	0	0	0	0	0	0	0	0	0	0	0	0	0	0	0	0	0	0	0	0	0	0	0	0	0	0
98.2763214111	35.7361335754	44.388885498	41.0835113525	41.874912262	42.6363487244	50.2357788086	63.2779922485	97.7923660278	167.902404785	208.111022949	202.332763672	326.682373047	543.514160156	745.138183594	484.194519043	335.651550293	394.513641357	666.070007324	521.26385498	373.40246582	465.1796875	573.153503418	307.878509521	180.792251587	196.416976929	293.514404297	354.180847168	234.901855469	157	277.319549561	429.083404541	429.110595703	297.389007568	544.722900391	479.624694824	368.832977295	404.80581665	362.12487793	590.402832031	529.860839844	567.847839355	659.88848877	574.235961914	438.138366699	244.388214111	502.694244385	554.333435059	291.060699463	262.375793457	447.375335693	513.055541992	582.152709961	357.38848877	317.986602783	318.944366455	430.291687012	449.985565186	410.930175781	327.878173828	437.069396973	346.832305908	200.638656616	171.888519287	261.763916016	334.222473145	294.151977539	380.429962158	363.3331604	303.846893311	293.87487793	252.652664185	221.527908325	150.653045654	131.625366211	191.652481079	330.139648438	247.651580811	221.638870239	234.083557129	225.472183228	196.83366394	151.736129761	123.124984741	97.4546356201	75.2084579468	63.63879776	55.9167938232	53.0279388428	40.8054962158	37.6250457764	36.4166603088	34.0556335449	38.4997940063	52.1667747498	52.9848594666	49.1396026611	11.624879837	8.319480896	42.8334465027	69.8747711182	179.888748169	203.394454956	177.499801636	136.263519287	193.763442993	193.541885376	50.458190918	11.9722976685	14.9167108536	14.6531476974	10.5278167725	8.58341407776	8.72723770142	5.45810937881	0	0	0	0	0	0	51.750125885	109.750045776	100.486099243	119.611907959	126.37512207	78.0272216797	15.1804828644	13.4997110367	24.208272934	18.833366394	9.75740146637	9.99980735779	10.2778692245	15.4159803391	7.40269994736	0	0	0	0	0	0	0	0	0	0	0	0	0	0	0	0	0	0	0	0	0	0	0	0	0	0	0	0	0	0	0	0	0	0	0	0	0	0	0	0	0	0	0	0	0	0	0	0	0	0	0	0	0	0	0	0	0	0	0	0	0	0	0	0	0	0	0
45.8615875244	93.5418395996	89.3335189819	98.7776107788	118.59728241	96.3031387329	105.513526917	119.055641174	135.875549316	176.665313721	343.916992188	549.667053223	774.138183594	645.359863281	1034.97314453	575.722351074	690.443786621	779.223937988	827.097351074	634.096740723	375.916656494	551.374206543	574.026977539	338.908355713	295.319213867	189.723144531	156.013626099	224.11151123	203.430847168	276.472473145	551.195861816	791.791503906	632.90222168	414.764007568	522.000305176	436.666625977	403.458374023	542.75012207	421.374755859	746.347351074	622.221923828	600.681945801	524.31829834	510.416992188	640.348205566	195.805007935	301.013977051	500.153442383	225.667282104	201.416519165	297.805236816	276.332672119	236.723114014	161.125015259	101.319107056	97	179.638748169	205.52822876	410.167022705	320.744537354	277.820007324	222.972015381	378.583557129	151.916412354	223.153182983	271.125030518	251.120880127	245.249786377	227.916717529	241.180664062	206.777999878	128.958312988	98.041229248	96.0276260376	133.734970093	130.221633911	193.09715271	154.559570312	175.569503784	136.971969604	111.805992126	97.1945648193	73.2363586426	52.9305343628	60.5454788208	64.6670455933	48.0834197998	40.9582214355	41.0280380249	44.2777252197	47.2916107178	48.9444541931	44.6665382385	49.4999771118	76.916519165	95.197013855	76.4724121094	12.4445514679	12.1388616562	73.3055801392	158.430511475	220.140213013	143.560272217	166.805877686	107.291923523	186.736602783	43.2228546143	14.6386938095	19.3888587952	22.0837421417	12.4444303513	18.805562973	9.5417547226	8.57608222961	0	0	0	0	0	61.4859542847	129.258041382	138.805679321	105.764122009	102.500419617	102.347587585	106.833274841	21.7229957581	65.2505569458	23.2078208923	11.6386442184	25.5556240082	11.7273349762	8	9.86103630066	7.81935787201	6	0	0	0	0	0	0	0	0	0	0	0	0	0	0	0	0	0	0	0	0	0	0	0	0	0	0	0	0	0	0	0	0	0	0	0	0	0	0	0	0	0	0	0	0	0	0	0	0	0	0	0	0	0	0	0	0	0	0	0	0	0	0	0	0	0	0	0
42.5242996216	92.8098831177	132.20211792	125.559684753	140.035446167	188.41583252	239.179031372	289.536224365	347.369628906	369.214874268	300.964263916	467.785705566	698.843444824	673.678588867	728.559387207	576.392150879	899.226379395	715.774230957	686.511291504	560.677612305	404.535766602	583.440368652	432.297637939	386.70135498	343.928833008	251.905059814	207.84538269	326.65524292	559.024902344	325.928070068	870.466491699	932.380493164	651.380859375	509.14276123	615.071838379	344.951629639	543.190795898	513.142456055	532.118591309	519.28515625	673.357299805	792.74230957	531.404663086	335.773406982	493.571380615	343.120117188	109.083213806	112.035140991	97	97	97	97	97	97	120.000396729	181.547714233	133.392379761	95.6191635132	89.7380828857	118.233963013	89.536491394	71.4046936035	112.178039551	170.308792114	193.797637939	181.547241211	142.064224243	114.714126587	147.571304321	132.202880859	76.0596694946	74.9758148193	88.274055481	162.213867188	162.154602051	88.369354248	65.9164886475	84.0127868652	90.1544265747	77.8453063965	82.3454284668	42.6427078247	37.4167480469	36.4761390686	37.4154853821	37.1071510315	40.6189155579	62.1309814453	61.0354728699	83.3571929932	89.0594406128	86.5119934082	88.8095474243	96.0117874146	97.4644241333	79.1300888062	54.5951423645	26.0952606201	7.29743528366	116.024261475	28.3564586639	25.4877223969	72.9478759766	57.7855033875	45.1905593872	25.54728508	15.2740192413	19.7500114441	25.023853302	37.9643745422	45.4283752441	13.7259750366	3.30947995186	0	0	0	1.28553211689	60.4999313354	136.523727417	143.797851562	183.415664673	130.96446228	37.6189613342	37.2258300781	36.5116920471	19.6904697418	56.3214607239	117.773895264	87.6783981323	37.238155365	33.2620239258	9.88346672058	8.27377033234	9.82145404816	10.7976913452	2.09538340569	0	0	0	0	0	0	0	0	0	0	0	0	0	0	0	0	0	0	0	0	0	0	0	0	0	0	0	0	0	0	0	0	0	0	0	0	0	0	0	0	0	0	0	0	0	0	0	0	0	0	0	0	0	0	0	0	0	0	0	0	0	0	0	0	0	0	0
63.3334541321	81.9284439087	102.29675293	152.368942261	200.345169067	320.741729736	379.322143555	498.678527832	574.322509766	457.559692383	419.083068848	685.452636719	490.791931152	561.666809082	514.190368652	645.654968262	707.130737305	636.809448242	557.988342285	413.119415283	546.428833008	430.976287842	371.797363281	413.806060791	186.249923706	215.880981445	346.595245361	428.737823486	683.654785156	430.797485352	675.739685059	771.904785156	613.512145996	831.107666016	654.274841309	375.571350098	691.536132812	608.070800781	611.380615234	536.214233398	344.80947876	741.844909668	610.095092773	457.808990479	231.558898926	234.845672607	108.809394836	102.916099548	145.103988647	169.202270508	132.749908447	209.976593018	322.904876709	316.178588867	402.72644043	432.678222656	410.952148438	241.642959595	216.297393799	190.674285889	231.940368652	74.2499694824	65.6308670044	97.464630127	67.8330154419	59.5953025818	52.7664413452	50.7261161804	48.6070556641	50.0118675232	120.761825562	82.8211898804	58.8808364868	110.000144958	141.131652832	69.4285736084	53.1544647217	45.7797546387	50.6547279358	38.9761199951	39.3450737	45.1667938232	58.4762649536	64.0949859619	46.9089660645	73.333442688	100.416664124	93.6071929932	104.452316284	126.106697083	130.749893188	115.952377319	105.28578186	116.213867188	140.762039185	118.220733643	120.333282471	99.809135437	16.1191501617	7.82120084763	39.7616996765	46.3809738159	2.50607085228	8.16665935516	30.6071605682	20.9166641235	16.2380809784	25.5594444275	29.7145576477	27.3689956665	18.464509964	6.11917257309	0	0	0	23.2142486572	96.3930435181	143.666824341	125.500038147	145.333786011	95.9094467163	86.7378463745	82.3096542358	74.6315383911	42.1545715332	72.6898574829	105.714607239	103.988014221	49.2977256775	31.6667137146	11.2138662338	14.1038742065	18.0123214722	10.2262144089	6.58339977264	0	0	0	0	0	0	0	0	0	0	0	0	0	0	0	0	0	0	0	0	0	0	0	0	0	0	0	0	0	0	0	0	0	0	0	0	0	0	0	0	0	0	0	0	0	0	0	0	0	0	0	0	0	0	0	0	0	0	0	0	0	0	0	0	0	0	0	0
110.861206055	161.569320679	203.277633667	296.722625732	361.069458008	437.545684814	480.458465576	535.36114502	493.027252197	443.83303833	597.902954102	661.374633789	498.757751465	440.958129883	442.902770996	467.458190918	529.041381836	544.680664062	497.791625977	321.083007812	504.527770996	441.166748047	295.222229004	203.166397095	222.305221558	280.666687012	451.430999756	550.943481445	723.207336426	593.999206543	733.69744873	946.457275391	899.640319824	745.735961914	496.334381104	457.262573242	621.264221191	503.110931396	594.930419922	595.707458496	306.055480957	500.697113037	700.861450195	557.110717773	289.805114746	142.097000122	268.820281982	160.998764038	424.197692871	546.751708984	251.971603394	461.443695068	569.223022461	458.027709961	586.305908203	612.571289062	590.930603027	275.708129883	434.610595703	523.907409668	331.04196167	96.5960006714	78.4035339355	66.3330459595	60.277885437	58.5834655762	51.7427062988	56.763874054	70.0687637329	48.5276756287	57.5414390564	79.8751602173	37.9164543152	54.9860267639	70.3331298828	70.0000991821	47.9026565552	39.9845199585	37.1388092041	41.4583854675	52.9724121094	79.4167480469	83.0554046631	66.8331451416	78.6971359253	103.999916077	122.236114502	114.694313049	123.7917099	144.069259644	152.958343506	137.416610718	116.249595642	103.180610657	85.4720993042	124.136520386	105.735794067	121.430732727	74.43019104	108.527763367	118.22265625	112.722450256	62.287689209	15.7360210419	0.0833172649145	7.80526065826	9.63881874084	12.4026136398	9.01388645172	5.93048238754	1.05559802055	0	0	28.0607585907	70.8195419312	137.749023438	238.805038452	176.459243774	133.541900635	116.139472961	65.2117004395	48.8469200134	68.8054504395	90.3888244629	105.291801453	131.819015503	129.249832153	87.597076416	28.9306716919	15.0278253555	11.0970258713	9.10609912872	6.52801942825	3.23572206497	0	0	0	0	0	0	0	0	0	0	0	0	0	0	0	0	0	0	0	0	0	0	0	0	0	0	0	0	0	0	0	0	0	0	0	0	0	0	0	0	0	0	0	0	0	0	0	0	0	0	0	0	0	0	0	0	0	0	0	0	0	0	0	0	0	0	0	0	0
138.222427368	213.861038208	331.097320557	437.944824219	442.014190674	460.741912842	518.541381836	545.486206055	517.846801758	403.347229004	464.541473389	465.611328125	430.484863281	402.194580078	379.431030273	358.458343506	397.930511475	481.069732666	512.778259277	425.847686768	266.069793701	291.444549561	163.819335938	192.757415771	339.027923584	562.930297852	351.569580078	746.08380127	730.166503906	766.723571777	546.863220215	933.291625977	716.457824707	677.194580078	463.180419922	214.915557861	572.541320801	393.610198975	426.944458008	367.944091797	283.084136963	219.530090332	247.013824463	249.833358765	142.83303833	260.54083252	366.014129639	211.402420044	594.772644043	586.222412109	413.389038086	486.805877686	599.874206543	484.290863037	586.45904541	417.402832031	340.443786621	374.291992188	420.069519043	539.105773926	308.708099365	184.04119873	155.251403809	72.7495727539	70.2502975464	101.542266846	115.106674194	150.151626587	168.945251465	102.33379364	118.944366455	127.457458496	54.6940689087	35.5413703918	36.3888969421	38.986164093	32.5138893127	44.136554718	53.7360115051	76.9453659058	69.805480957	85.5830383301	71.3751220703	90.902961731	113.273475647	116.861328125	123.499900818	140.013198853	138.194015503	129.860839844	133.347671509	108.402618408	86.8468322754	35.8747634888	5.58341360092	6.72698974609	5.36084842682	4.55550527573	9.81947898865	25.3608779907	83.1251678467	129.5831604	82.2112884521	11.5556411743	9.88891029358	0.374927669764	1.51378214359	2.87502408028	0	0.583316028118	0	0.277724206448	48.9995574951	137.257858276	174.293167114	73.1805267334	96.9162979126	139.56993103	97.6946182251	53.5276412964	58.0605926514	134.903335571	89.027671814	114.222290039	126.458526611	112.805435181	126.611122131	76.1804504395	26.7917671204	24.9026985168	29.3750228882	6.40910196304	4.02775621414	0	0	4.7502412796	0	0	0	0	0	0	0	0	0	0	0	0	0	0	0	0	0	0	0	0	0	0	0	0	0	0	0	0	0	0	0	0	0	0	0	0	0	0	0	0	0	0	0	0	0	0	0	0	0	0	0	0	0	0	0	0	0	0	0	0	0	0	0	0	0	0	0
223.86151123	306.903259277	386.875274658	390.611602783	404.541473389	470.333831787	416.014770508	434.319885254	574.348449707	354.708374023	379.055206299	375.026763916	269.060577393	278.861022949	312.736328125	298.374481201	299.902496338	228.541000366	478.764038086	296.430999756	170.194946289	105.097915649	176.499771118	322.681427002	528.556274414	697.722839355	399.943450928	514.443786621	860.861572266	681.82019043	353.62097168	624.306091309	758.137573242	399.263275146	575.93157959	220.194625854	403.806610107	260.77835083	133.763931274	129.027770996	153.457519531	140.74230957	133.109909058	124.06942749	259.944580078	466.513275146	326.611358643	240.194747925	624.559692383	573.916748047	632.625915527	598.736022949	587.000427246	478.666870117	327.748901367	457.708404541	576.956848145	555.457702637	324.111053467	468.863494873	257.486022949	258.111450195	231.362030029	89.7775039673	122.331916809	172.015899658	149.529724121	274.402832031	256.416229248	285.069091797	83.8748397827	53.1805000305	54.9715156555	43.2644042969	29.8470592499	31.6110954285	28.0692386627	45.2273902893	55.4582328796	66.1801834106	87.1390075684	66.1111602783	74.1391067505	101.431098938	103.06047821	110.902694702	101.333572388	95.8056411743	122.208625793	87.5831451416	79.2642669678	63.2085914612	9.0415725708	9.61099338531	23.3746910095	21.4542713165	28.1108169556	36.5138244629	13.2083425522	10.4721803665	8.87496471405	7.41672992706	4.78769779205	2.81929850578	4.44498205185	7.70838975906	4.37497711182	1.4303290844	4.34638357162	13.2633953094	10.9581975937	82.3469238281	145.847351074	111.424591064	64.3333282471	63.0832214355	56.5140075684	57.0553092957	119.736473083	62.6527099609	86.0302352905	86.347114563	70.9721298218	110.958274841	66.2222213745	62.610912323	112.472389221	47.5413856506	26.4443950653	26.9588508606	13.6246290207	28.8787689209	30.3752975464	7.94439268112	4.33338499069	5.65284490585	0	0	0	0	0	0	0	0	0	0	0	0	0	0	0	0	0	0	0	0	0	0	0	0	0	0	0	0	0	0	0	0	0	0	0	0	0	0	0	0	0	0	0	0	0	0	0	0	0	0	0	0	0	0	0	0	0	0	0	0	0	0	0	0	0	0	0
221.798019409	274.119140625	293.285247803	362.536315918	398.879943848	321	455.393554688	486.308349609	412.999603271	612.143676758	751.809814453	517.403076172	171.037948608	375.904510498	475.678863525	490.999938965	579.798706055	411.845397949	283.845062256	157.272750854	59.6184883118	244.488449097	469.23928833	289.466461182	653.619018555	808.047912598	546.797241211	520.582946777	528.773742676	897.538452148	439.779449463	447.868499756	570.416625977	243.177963257	168.392486572	128.214248657	131.118743896	161.476547241	340.094390869	503.79800415	337.011260986	206.766448975	398.774383545	134.91696167	374.822540283	570.357666016	355.869262695	294.666595459	542.207763672	632.975341797	938.99041748	636.287597656	750.011962891	688.178894043	392.345367432	507.393371582	448.130340576	467.548461914	291.809295654	330.272674561	265.583679199	170.452087402	159.356964111	171.952636719	148.047607422	213.869552612	222.181945801	210.083007812	262.297546387	267.904541016	180.547943115	96.9521026611	65.5355224609	51.3335609436	39.6781921387	34.7381324768	35.8808288574	37.8569984436	46.8930587769	61.5238761902	58.0830383301	57.1306495667	49.8449783325	57.5950584412	51.7920684814	32.0476112366	16.1784706116	14.3573770523	36.273601532	12.2617759705	11.0714168549	14.5595846176	8.55944442749	40.2620124817	62.7499656677	62.7140159607	71.8213119507	35.3808174133	19.2270069122	12.5832519531	11.3333673477	10.6667137146	9.48044395447	4.46393918991	9.22630023956	10.9286956787	24.892873764	47.6312332153	57.4406471252	154.97644043	92.500213623	51.4290924072	76.1786499023	87.8699798584	76.8929138184	137.345718384	115.369178772	65.2739105225	63.0713386536	92.6665344238	110.805397034	96.1903533936	92.8690643311	94.0235900879	96.8932876587	86.3808059692	68.5477294922	45.2023506165	11.4643316269	36.1429824829	66.0357131958	64.8180465698	56.1785430908	44.6788406372	35.9404830933	8.99997901917	15.5835943222	0.154739975929	0	0	0	0	0	0	0	0	0	0	0	0	0	0	0	0	0	0	0	0	0	0	0	0	0	0	0	0	0	0	0	0	0	0	0	0	0	0	0	0	0	0	0	0	0	0	0	0	0	0	0	0	0	0	0	0	0	0	0	0	0	0	0	0	0
238.444335938	265.583435059	272.555175781	305.319641113	295.222229004	482.697784424	675.737854004	601.972106934	722.071472168	846.126342773	500.457885742	315.833496094	401.122131348	495.264038086	597.805664062	725.070983887	617.346984863	660.791870117	303.374145508	101.45791626	161.693969727	444.361206055	609.362548828	525.863037109	593.071411133	695.95715332	784.957641602	843.322692871	417.484344482	596.347167969	473.742431641	169.24961853	151.74949646	128.180557251	317.6121521	344.556030273	523.959777832	481.722930908	576.597595215	482.56930542	248.749420166	279.863647461	500.125488281	187.569824219	276.23626709	525.707580566	408.472686768	345.750335693	594.211181641	831.096435547	516.554443359	606.541259766	630.944030762	555.110534668	492.779754639	406.528717041	605.709472656	337.069458008	257.847381592	199.165985107	139.165359497	256.666809082	304.528137207	314.041564941	302.917327881	168.319625854	198.545669556	140.861343384	143.111038208	183.069534302	148.027679443	150.43069458	109.458557129	72.8750228882	61.9027481079	71.361618042	64.2917556763	63.2575149536	39.3883972168	42.3609886169	31.6944026947	17.7080440521	14.9305686951	14.4444923401	15.5605964661	14.5556411743	16.3474731445	16.0970096588	15.7500019073	21.3053741455	27.7224216461	24.1112365723	49.2363014221	76.6112823486	119.13910675	80.8333206177	59.819278717	42.5556755066	15.194360733	23.6666374207	13.9027967453	10.2221794128	8.8636674881	10.4999036789	10.8611383438	29.7223758698	111.805999756	228.834747314	207.319854736	153.708129883	108.27771759	92.4168014526	71.5693740845	70.3029632568	107.430412292	193.889389038	105.722335815	63.4308319092	96.2766876221	164.818847656	107.439575195	80.5557327271	77.0547332764	61.1664886475	81.749710083	75.0137176514	32.7635955811	30.3890361786	31.1658878326	139.764083862	117.416297913	82.2269287109	61.9723205566	48.1388282776	36.5694732666	34.0275344849	21.9585533142	12.6249790192	0.348410278559	0	0	0	0	0	0	0	0	0	0	0	0	0	0	0	0	0	0	0	0	0	0	0	0	0	0	0	0	0	0	0	0	0	0	0	0	0	0	0	0	0	0	0	0	0	0	0	0	0	0	0	0	0	0	0	0	0	0	0	0	0	0	0	0
380.666778564	426.430847168	455.152557373	367.791046143	232.817169189	354.045349121	457.166351318	699.611022949	841.431274414	669.500488281	408.793731689	163.055282593	488.787719727	440.528198242	396.096923828	422.083190918	389.444152832	358.499603271	375.167327881	117.762985229	119.554786682	326.610839844	449.166931152	506.378570557	757.47076416	549.860107422	807.501220703	586.805847168	333.152801514	187.805374146	154.878814697	192.624633789	354.567840576	260.541717529	526.457214355	635.792236328	438.333129883	408.207824707	288.791503906	290.166748047	234.208099365	217.772781372	521.570678711	163.458648682	235.403549194	483.123779297	429.569793701	459.110961914	716.727539062	786.971069336	588.096679688	472.12411499	482.666503906	481.249908447	576.041931152	282.499938965	388.27734375	330.402709961	214.166534424	241.757522583	255.166564941	392.139190674	364.194488525	320.402282715	240.875030518	238.819580078	255.287796021	209.292037964	125.722373962	117.777534485	126.02759552	128.833389282	131.694595337	148.653625488	119.596893311	90.9582977295	52.7499504089	47.0150337219	47.08360672	36.3473472595	28.0552692413	26.9162845612	40.402797699	49.319858551	33.5455589294	34.6249771118	28.5414199829	48.0279464722	51.833366394	39.8055648804	37.2639350891	40.166721344	72.1389389038	115.194793701	119.084281921	197.545684814	221.235870361	229.18019104	111.347045898	68.0694351196	36.5277709961	24.1527481079	16.4090003967	35.4305458069	125.125465393	140.973403931	214.388839722	249.263595581	251.971984863	153.34727478	104.458824158	186.402999878	92.4301834106	93.6659317017	216.583969116	153.846725464	109.832939148	84.3893814087	108.209007263	62.5138282776	60.5302963257	35.1247825623	34.1806182861	49.0694313049	37.5277709961	24.1805553436	21.3885250092	37.652923584	123.444587708	103.91658783	106.958145142	105.075965881	98.9446258545	78.2637786865	64.9863357544	60.7220687866	58.3750076294	53.416683197	60.5604782104	60.6667556763	44.5695266724	37.0423126221	6.22150373459	5.43059587479	0	0	0	0	0	0	0	0	0	0	0	0	0	0	0	0	0	0	0	0	0	0	0	0	0	0	0	0	0	0	0	0	0	0	0	0	0	0	0	0	0	0	0	0	0	0	0	0	0	0	0	0	0	0	0	0	0	0	0
398.542205811	492.778137207	458.09753418	288.236480713	308.388885498	551.363037109	649.917907715	566.916748047	524.888916016	588.180358887	339.083190918	101.666168213	290.955749512	288.999206543	381.833465576	479.291625977	649.376953125	474.930755615	447.917358398	55.0686950684	87.2775268555	413.445465088	376.221801758	637.910583496	513.471496582	418.027801514	366.09777832	302.972686768	215.790466309	481.495117188	365.484100342	368.902954102	609.875793457	404.333557129	466.138183594	700.179321289	667.307006836	431.611022949	295.721405029	379.722045898	486.653015137	249.317520142	425.278625488	129.98600769	269.833221436	422.055725098	405.999938965	622.000854492	472.256713867	576.848327637	677.05682373	557.13885498	447.708435059	368.471313477	456.583557129	416.054473877	248.458450317	216.958526611	214.888717651	333.076599121	325.527435303	451.805847168	445.124908447	466.305267334	229.319152832	263.514007568	330.606842041	265.346954346	219.02835083	152.291168213	131.347183228	137.81918335	115.722183228	118.027694702	96.7218170166	107.208320618	102.889205933	63.7882080078	59.0417938232	46.6386642456	37.8331604004	42.9720802307	38.791557312	40.6666717529	30.0300674438	39.4032707214	50.8336296082	48.6665382385	45.6247329712	61.7084693909	58.2083816528	84.0413894653	119.694099426	165.346954346	109.471870422	199.711700439	267.681396484	263.250213623	246.000061035	220.584381104	194.541107178	177.318969727	152.319030762	153.027816772	198.180221558	189.014602661	255.028289795	189.583435059	185.027786255	178.819335938	100.207954407	165.889205933	183.125244141	82.8932189941	170.2918396	98.7222213745	74.9859466553	47.0416069031	43.9168319702	45.9304084778	66.8785934448	59.6804466248	54.5972442627	32.2639846802	25.8470592499	36.9164390564	53.9580917358	68.1942443848	79.8891220093	126.152893066	122.805740356	118.317985535	130.278106689	124.472549438	99.2915649414	80.2220306396	81.6388702393	89.7777786255	102.590888977	92.3470077515	74.4861679077	55.8747558594	33.4582138062	23.1944522858	17.2499675751	0.152748316526	0	0	0	0	0	0	0	0	0	0	0	0	0	0	0	0	0	0	0	0	0	0	0	0	0	0	0	0	0	0	0	0	0	0	0	0	0	0	0	0	0	0	0	0	0	0	0	0	0	0	0	0	0	0	0	0	0
371.41619873	371.512268066	287.024200439	118.547340393	239.833389282	351.597045898	345.524139404	424.285583496	617.512329102	561.01348877	396.977416992	61.1304740906	384.155395508	502.773590088	575.46472168	529.797668457	509.178710938	383.381530762	298.071502686	150.867660522	53.0591163635	278.808990479	476.988739014	367.493347168	523.573791504	560.357788086	424.511077881	428.5234375	376.690002441	704.106811523	810.533996582	394.368682861	546.630187988	381.059265137	672.024414062	636.975524902	472.023498535	380.118469238	487.191253662	364.547180176	596.869750977	321.467071533	344.917266846	148.487747192	236.940841675	417.713653564	384.107818604	553.666564941	743.58581543	480.761688232	343.344543457	457.440490723	556.368774414	442.273864746	334.642852783	364.356994629	274.309539795	359.559997559	323.071624756	334.636230469	259.523864746	433.84487915	441.500518799	390.750061035	253.9168396	224.381027222	293.519897461	339.142883301	318.904754639	267.392700195	215.583648682	183.369125366	157.71421814	145.142944336	137.976196289	123.702339172	102.214294434	96.7403182983	85.9524917603	76.0002746582	65.6189193726	62.2383155823	51.5710716248	45.4403648376	44.1818008423	62.9047813416	56.8807563782	66.369468689	78.3097610474	91.2381515503	133.404998779	146.380981445	238.000152588	217.261886597	116.178596497	168.246902466	221.203018188	231.523468018	238.892608643	234.285919189	213.250045776	185.047592163	118.571685791	227.857513428	225.54776001	230.535797119	247.2265625	215.857696533	175.203689575	98.9162597656	115.440376282	134.595108032	113.571395874	100.233413696	66.9523468018	61.0357208252	61.4052391052	44.1191711426	44.6189537048	56.01171875	71.8961181641	62.9879684448	33.7737808228	33.7022399902	107.178794861	95.5832443237	128	82.3807830811	67.3686065674	112.678604126	163.654510498	181.55821228	168.012191772	153.904830933	126.630752563	116.53578949	103.309555054	96.3215332031	101.519393921	91.2499313354	83.4881668091	62.3333129883	56.0001296997	39.0596504211	26.761882782	12.238067627	0	0	0	0	0	0	0	0	0	0	0	0	0	0	0	0	0	0	0	0	0	0	0	0	0	0	0	0	0	0	0	0	0	0	0	0	0	0	0	0	0	0	0	0	0	0	0	0	0	0	0	0	0	0	0	0	0
424.194549561	351.444763184	82.1389541626	231.444580078	328.222686768	322.000366211	519.265869141	652.611206055	561.261901855	197.567169189	46.3738059998	253.319717407	505.196594238	545.25	562.708129883	529.76373291	391.388702393	316.472015381	465.750457764	167.846420288	11.3756990433	131.042022705	467.471801758	395.786346436	296.207336426	492.485870361	641.874389648	628.126037598	591.25012207	358.499298096	587.529846191	523.95916748	554.986816406	433.194061279	571.291564941	631.764648438	679.862792969	629.417236328	453.902770996	361.152648926	595.48638916	553.34979248	443.000427246	247.569198608	122.208099365	212.638275146	277.65246582	495.693511963	675.515930176	543.818908691	559.555969238	302.305175781	429.735565186	349.541748047	319.06930542	282.096466064	366.415740967	326.402496338	434.72366333	556.83380127	353.096801758	327.263793945	292.248718262	320.36138916	352.152984619	225.527801514	200.499130249	296.332946777	338.860992432	316.166595459	264.083435059	235.611129761	205.596878052	183	169.514007568	159.708435059	149.611068726	139.727325439	118.36125946	103.208358765	92.777633667	101.305740356	69.2223129272	58.8611183167	84.166633606	118.18082428	145.90145874	141.793167114	152.847106934	148.902832031	228.514007568	272.347595215	280.847198486	216.652450562	179.292160034	190.12097168	217.569442749	224.347549438	270.153198242	215.124511719	192.708374023	137.069534302	179.228378296	183.930633545	225.806564331	220.110824585	172.124511719	253.500579834	180.625045776	100.736099243	93.5274734497	93.5556640625	55.4164543152	44.3633956909	49.625	50.5694580078	51.9723930359	41.2360496521	40.7778205872	49.2777252197	53.0301399231	49.444519043	40.8472518921	150.402801514	141.819351196	94.6803512573	66.8609466553	70.5275421143	87.6528320312	114.51385498	131.375366211	147.090820312	156.833496094	143.638778687	133.2081604	120.666732788	101.333381653	92.2222442627	81.7422561646	84.65284729	73.3333282471	70.6945343018	68.6806106567	49.2639884949	35.0279045105	26.0694313049	1.40270006657	0	0	0	0	0	0	0	0	0	0	0	0	0	0	0	0	0	0	0	0	0	0	0	0	0	0	0	0	0	0	0	0	0	0	0	0	0	0	0	0	0	0	0	0	0	0	0	0	0	0	0	0	0	0	0	0
430.181884766	271.431732178	44.1514968872	323.555480957	431.486358643	461.348693848	529.430541992	493.888275146	202.347198486	17.3471813202	199.77734375	488.625793457	539.196838379	515.986328125	513.73638916	363.332122803	340.916320801	543.971984863	531.513916016	256.26361084	30.6943302155	62.4881324768	560.057678223	553.543640137	286.666564941	142.166488647	192.027435303	383.500671387	598.111328125	334.277191162	521.879760742	580.01550293	488.84954834	457.180358887	482.596679688	543.87487793	581.91619873	460.013824463	546.694580078	358.694580078	410.208892822	741.166320801	659.486877441	419.749603271	374.638153076	187.514038086	153.082382202	544.530578613	509.484771729	385.235931396	331.902954102	289.514099121	302.625213623	340.416442871	369.694122314	439.043273926	592.083618164	475.623382568	465.915740967	590.697387695	518.819580078	401.458099365	386.138763428	361.569610596	312.624938965	322.375488281	262.060272217	209.916778564	221.333251953	241.805770874	231.485992432	218.249801636	204.875488281	185.013885498	184.09727478	195.958404541	186.861022949	177.075912476	161.319381714	141.680618286	135.388946533	81.3470458984	90.9721069336	98.4028320312	143.65171814	378.930633545	307.944091797	258.165161133	260.055480957	216.570022583	248.069152832	294.471923828	328.152954102	222.458679199	153.652954102	178.363647461	205.166915894	217.707839966	248.888961792	198.693634033	152.291641235	207.235809326	209.45425415	166.652862549	188.36038208	178.041732788	108.430099487	133.444396973	91.4302749634	59.0834350586	48.3193817139	41.2222137451	39.0555458069	37.727104187	42.291809082	42.2359924316	47.7219161987	48.4723243713	43.9719581604	42.9169120789	41.3333473206	42.513671875	68.2773513794	134.582977295	87.902305603	81.2777481079	99.5278244019	130.986404419	140.847183228	145.611190796	164.736236572	159.378921509	145.499984741	144.152557373	153.360916138	145.916763306	139.957962036	121.944335938	103.090843201	91.4861602783	95.4167785645	80.5971069336	77.5693130493	82.3890838623	58.2499465942	41.9447212219	32.208366394	16.7925415039	0.208293154836	0	0	0	0	0	0	0	0	0	0	0	0	0	0	0	0	0	0	0	0	0	0	0	0	0	0	0	0	0	0	0	0	0	0	0	0	0	0	0	0	0	0	0	0	0	0	0	0	0	0	0	0	0	0
253.226669312	51.6543540955	176.333511353	326.523895264	353.535583496	386.051605225	431.928253174	280.499938965	9.54742431641	206.808639526	462.98840332	474.856658936	435.921630859	469.428039551	352.07119751	309.737426758	333.772979736	797.976013184	609.78503418	539.524230957	231.763793945	9	420.142364502	690.946899414	509.964141846	298.047485352	196.512359619	118.297576904	343.499908447	336.333343506	391.765441895	458.95223999	340.226470947	336.785766602	417.916534424	456.952423096	432.071075439	405.512176514	583.273620605	452.607116699	249.094985962	653.520080566	489.987762451	678.262817383	639.689819336	400.380859375	135.01071167	458.35736084	398.18170166	385.321411133	345.34564209	296.618927002	283.594238281	378.607208252	447.845672607	388.178405762	574.606750488	618.178710938	498.036193848	517.935058594	468.999694824	446.82119751	450.440734863	422.142456055	403.61907959	363.654663086	358.363708496	300.773956299	242.737930298	185.59538269	153.345153809	151.988204956	145.762145996	140.499771118	144.297561646	154.821578979	168.475799561	185.739776611	171.571456909	142.297225952	113.869064331	131.595413208	132.809448242	146.213409424	253.15725708	351.000793457	421.904785156	389.429077148	337.678924561	287.726257324	352.654418945	372.940765381	209.892715454	275.405273438	228.190948486	228.507354736	237.261413574	190.821594238	218.214294434	204.120193481	154.571014404	191.297698975	199.155593872	161.845474243	167.833251953	129.320907593	77.9286956787	64.9642944336	60.7621688843	48.9880828857	43.702293396	43.5119743347	41.5595855713	39.4934387207	45.4524993896	51.0712776184	47.4881820679	49.5472717285	45.345375061	39.7619781494	40.1428337097	52.6188316345	172.131332397	125.011764526	122.416763306	128.333770752	108.880981445	121.702293396	159.332748413	186.928878784	164.749893188	178.350769043	183.464263916	166.226226807	170.285812378	154.881118774	137.32144165	120.011573792	106.532554626	120.452545166	100.369148254	97.9406280518	89.1191558838	72.4763565063	68.5358505249	56.9881095886	45.190486908	35.6549568176	19.8332290649	1.79224288464	0	0	0	0	0	0	0	0	0	0	0	0	0	0	0	0	0	0	0	0	0	0	0	0	0	0	0	0	0	0	0	0	0	0	0	0	0	0	0	0	0	0	0	0	0	0	0	0	0	0	0	0	0
141.527435303	69.1120376587	172.694488525	264.652770996	316.625030518	367.681945801	301.430419922	5.29184389114	84.8757019043	415.652648926	469.847290039	523.180358887	559.394042969	568.861206055	282.304748535	512.083557129	276.055541992	696.05871582	735.666687012	645.431152344	113.777709961	9	309.930358887	516.271179199	520.250061035	666.069152832	491.32019043	152.292251587	118	242.764297485	411.909057617	360.167175293	432.071380615	229.402877808	261.013458252	384.65234375	391.791412354	219.832672119	320.067749023	513.431152344	212.943771362	577.259887695	369.652404785	611.888427734	414.401031494	397.069824219	124.235488892	437.638549805	484.847137451	424.902801514	282.583312988	219.444046021	328.722595215	357.555328369	367.012451172	366.541534424	466.471038818	482.972320557	428.930267334	465.681396484	505.055633545	477.69442749	488.610961914	442.361358643	379.791900635	340.486083984	302.151184082	257.041381836	203.221908569	168.416992188	141.625427246	133.75	120.930213928	119.152923584	122.513786316	134.652954102	143.652648926	146.530410767	153.235794067	155.014648438	144.27772522	171.069335938	220.13885498	252.98576355	239.893600464	274.930664062	323.528106689	443.027801514	412.722595215	346.861816406	349.902832031	236.164352417	332.347564697	298.430908203	263.972167969	229.757705688	250.999893188	253.597366333	239.028259277	201.874938965	143.73600769	165.930297852	189.045394897	154.305511475	105.250144958	89.444519043	72.916595459	79.1252365112	83.2499389648	61.5974121094	49.8054008484	45.5278892517	40.8611373901	38.9394569397	43.8333930969	51.9583015442	36.5414085388	41.8059654236	36.0693206787	35.7500343323	59.5757026672	78.8749465942	101.055809021	121.541633606	144.389007568	161.86114502	114.041427612	176.597457886	156.583328247	151.902801514	180.347259521	190.423919678	200.77796936	189.749969482	160.72227478	161.833129883	162.972457886	156.73600769	137.894012451	118.02797699	108.444396973	99.9998092651	95.6387634277	85.1112823486	71.708114624	63.4999427795	53.055393219	40.3332901001	22.9444561005	0.0302960760891	0	0	0	0	0	0	0	0	0	0	0	0	0	0	0	0	0	0	0	0	0	0	0	0	0	0	0	0	0	0	0	0	0	0	0	0	0	0	0	0	0	0	0	0	0	0	0	0	0	0	0	0	0
16.8467025757	201.849227905	289.500030518	292.889190674	336.111083984	302.151519775	23.7495136261	16.9718570709	348.333557129	521.791748047	609.888671875	614.735900879	615.696716309	247.638626099	359.7081604	623.680786133	439.889984131	301.193237305	741.084777832	555.610961914	209.11239624	9	247.986068726	355.121826172	545.889831543	337.082733154	547.847167969	385.485656738	141.263748169	119.458053589	341.228179932	233.888626099	276.013580322	129.555374146	136.499954224	232.249847412	418.348266602	342.51385498	284.833740234	159.249267578	201.72215271	400.727294922	386.930145264	682.347229004	617.262451172	304.596588135	142.041687012	311.541778564	300.667297363	295.874725342	295.583221436	236.888504028	328.360778809	316.124938965	290.208312988	312.361053467	339.361175537	376.777862549	405.666503906	388.166625977	422.291687012	411.402740479	366.944366455	336.763946533	307.319396973	271.902618408	235.468307495	249.472366333	198.3334198	148.083068848	125.041938782	114.888778687	113.333358765	109.736160278	104.361038208	107.014038086	115.472038269	120.893623352	129.625076294	125.374931335	161.819747925	266.722015381	379.208465576	385.181060791	337.848846436	301.861175537	421.513977051	446.612060547	343.6668396	305.431304932	282.040557861	324.582885742	378.125274658	284.31842041	336.833496094	302.288482666	307.556060791	281.80581665	239.625030518	238.874908447	188.444473267	133.415847778	141.424255371	125.583374023	93.708442688	106.1665802	125.000282288	105.431045532	81.3470916748	75.7361602783	67.9725189209	57.0417518616	46.1387634277	42.8031959534	39.1389541626	37.5554466248	36.0279502869	39.0833816528	47.6390571594	105.041488647	183.045684814	171.291793823	185.09715271	154.208480835	142.416854858	183.541717529	196.653335571	190.541412354	179.680862427	206.250137329	204.624908447	223.378936768	192.791900635	171.055435181	186.388809204	181.80569458	171.638931274	169.958526611	136.515258789	124.833473206	118.38910675	106.320205688	78.6248703003	69.3056869507	66.6945037842	60.9445571899	50.2360649109	27.1250782013	5.62484407425	0	0	0	0	0	0	0	0	0	0	0	0	0	0	0	0	0	0	0	0	0	0	0	0	0	0	0	0	0	0	0	0	0	0	0	0	0	0	0	0	0	0	0	0	0	0	0	0	0	0	0	0	0	0
2.45217514038	284.738372803	338.928436279	323.940704346	110.011207581	0	4.03573894501	229.678527832	525.904602051	690.215026855	640.321044922	606.04699707	397.182403564	409.571105957	539.643310547	630.309692383	656.654174805	278.213531494	426.797637939	469.452453613	79.8101501465	10.4878845215	194.094696045	234.726989746	358.36831665	258.214080811	325.607147217	178.546737671	137.869903564	118	118	118	118	118	118	118	171.380783081	344.17868042	527.701599121	372.65536499	152.047470093	220.350662231	437.047576904	500.308074951	726.083435059	402.6065979	151.404510498	161.772705078	188.441085815	176.249176025	303.6668396	237.499603271	269.071502686	160.856719971	201.976089478	261.416412354	284	289.333282471	307.225891113	323.0519104	331.785705566	315.428375244	296.297637939	277.297546387	264.880981445	248.34513855	221.272628784	181.023727417	150.761672974	130.368881226	102.095222473	102.987953186	103.643005371	120.119056702	143.583435059	152.119125366	140.238082886	146.85736084	144.369033813	183.559753418	158.583221436	414.85723877	427.380767822	457.17868042	444.766845703	352.845397949	348.118865967	444.357421875	327.2265625	377.857208252	416.24987793	418.392578125	404.749969482	351.738586426	328.011932373	313.896118164	298.714111328	305.964477539	238.987869263	211.738372803	181.904556274	157.357223511	121.415489197	126.595344543	144.035583496	169.761978149	172.059646606	181.975616455	170.857177734	214.549453735	104.940597534	74.7738952637	57.9049453735	47.753288269	41.547542572	40.6786155701	43.0355491638	55.642829895	108.845191956	140.178527832	202.960891724	200.987976074	184.809570312	170.785964966	154.357086182	177.226135254	154.095184326	170.404525757	149.226226807	177.607192993	189.298141479	175.14263916	166.142837524	155.321258545	176.023498535	178.868942261	152.059432983	162.928604126	127.168968201	110.988075256	91.1070785522	68.666557312	62.8927307129	59.2500343323	47.0713272095	38.0952262878	29.6903553009	0	0	0	0	0	0	0	0	0	0	0	0	0	0	0	0	0	0	0	0	0	0	0	0	0	0	0	0	0	0	0	0	0	0	0	0	0	0	0	0	0	0	0	0	0	0	0	0	0	0	0	0	0	0	0	0
